539352.78 6600217.97 55.08
539352.36 6600217.76 55.09
539351.96 6600217.56 55.12
539351.53 6600217.34 55.08
539351.12 6600217.14 55.08
539350.74 6600216.94 55.17
539350.31 6600216.73 55.07
539349.90 6600216.52 55.08
539349.51 6600216.32 55.09
539349.12 6600216.13 55.13
539348.72 6600215.92 55.09
539348.31 6600215.72 55.06
539347.93 6600215.53 55.12
539347.53 6600215.33 55.08
539347.15 6600215.14 55.11
539346.75 6600214.93 55.06
539346.36 6600214.74 55.06
539345.99 6600214.55 55.09
539345.59 6600214.35 55.03
539345.21 6600214.16 55.01
539344.83 6600213.97 55.04
539344.46 6600213.78 55.05
539344.08 6600213.59 55.08
539343.70 6600213.40 55.04
539343.32 6600213.21 55.01
539342.95 6600213.02 54.99
539342.58 6600212.84 55.06
539342.22 6600212.65 55.10
539341.83 6600212.46 55.00
539341.47 6600212.28 55.04
539341.10 6600212.09 55.08
539340.75 6600211.91 55.12
539340.36 6600211.72 55.00
539340.00 6600211.54 55.04
539339.63 6600211.35 54.99
539339.27 6600211.17 54.99
539338.90 6600210.99 55.01
539338.54 6600210.80 54.96
539338.17 6600210.62 54.96
539337.82 6600210.44 54.98
539337.46 6600210.26 55.00
539337.10 6600210.08 54.99
539336.75 6600209.90 54.99
539336.39 6600209.72 55.00
539336.03 6600209.54 55.00
539335.66 6600209.35 54.97
539335.31 6600209.18 55.00
539334.95 6600209.00 55.03
539334.59 6600208.81 54.95
539334.23 6600208.63 54.98
539333.88 6600208.46 54.97
539333.52 6600208.27 54.96
539333.16 6600208.10 54.95
539332.80 6600207.91 54.93
539332.45 6600207.73 54.92
539332.08 6600207.55 54.94
539331.73 6600207.38 54.93
539331.37 6600207.19 54.90
539331.02 6600207.01 54.91
539330.65 6600206.83 54.86
539330.30 6600206.66 54.92
539329.94 6600206.47 54.91
539329.58 6600206.29 54.93
539329.22 6600206.11 55.00
539328.86 6600205.93 54.91
539328.50 6600205.75 55.00
539328.14 6600205.57 54.92
539327.79 6600205.39 54.89
539327.41 6600205.20 54.93
539327.06 6600205.02 54.89
539326.68 6600204.83 54.98
539326.32 6600204.65 54.96
539325.95 6600204.46 54.96
539325.60 6600204.29 54.87
539325.22 6600204.10 54.94
539324.87 6600203.92 54.86
539324.48 6600203.73 54.91
539324.12 6600203.54 54.92
539323.75 6600203.36 54.89
539323.38 6600203.17 54.89
539323.01 6600202.99 54.83
539322.60 6600202.78 55.02
539322.24 6600202.60 54.90
539321.87 6600202.41 54.90
539321.48 6600202.21 54.96
539321.12 6600202.03 54.88
539320.75 6600201.85 54.82
539320.32 6600201.63 55.00
539319.97 6600201.45 54.89
539319.58 6600201.26 54.89
539319.19 6600201.06 54.89
539318.78 6600200.86 54.96
539318.42 6600200.67 54.88
539318.02 6600200.47 54.89
539317.62 6600200.27 54.90
539317.24 6600200.08 54.82
539316.81 6600199.86 54.95
539316.42 6600199.67 54.90
539315.98 6600199.44 55.01
539314.78 6600198.84 54.92
539314.38 6600198.64 54.90
539313.97 6600198.43 54.86
539313.54 6600198.22 54.90
539313.13 6600198.01 54.86
539312.73 6600197.81 54.82
539312.27 6600197.58 54.87
539311.85 6600197.37 54.87
539311.43 6600197.16 54.85
539310.98 6600196.93 54.87
539310.55 6600196.71 54.87
539310.10 6600196.49 54.87
539309.67 6600196.27 54.85
539309.20 6600196.03 54.89
539308.75 6600195.81 54.89
539308.30 6600195.58 54.87
539307.85 6600195.35 54.86
539307.35 6600195.10 54.92
539306.92 6600194.88 54.86
539306.43 6600194.64 54.88
539305.95 6600194.40 54.89
539305.48 6600194.16 54.87
539305.02 6600193.93 54.84
539304.53 6600193.68 54.84
539304.03 6600193.43 54.85
539303.53 6600193.18 54.86
539303.05 6600192.94 54.83
539302.54 6600192.68 54.84
539302.04 6600192.43 54.83
539301.53 6600192.17 54.80
539301.02 6600191.91 54.81
539300.49 6600191.65 54.81
539299.95 6600191.38 54.81
539299.43 6600191.12 54.79
539298.86 6600190.83 54.82
539298.33 6600190.56 54.81
539297.75 6600190.27 54.83
539297.19 6600189.99 54.84
539296.63 6600189.71 54.81
539296.04 6600189.41 54.84
539295.45 6600189.11 54.84
539294.88 6600188.83 54.82
539294.29 6600188.53 54.80
539293.71 6600188.24 54.78
539293.09 6600187.93 54.77
539292.48 6600187.62 54.78
539291.85 6600187.30 54.76
539291.24 6600186.99 54.74
539290.59 6600186.67 54.73
539289.97 6600186.35 54.71
539289.30 6600186.02 54.71
539288.60 6600185.66 54.75
539287.95 6600185.34 54.70
539287.28 6600185.00 54.68
539286.62 6600184.67 54.64
539285.95 6600184.33 54.59
539285.24 6600183.98 54.57
539284.54 6600183.62 54.53
539283.82 6600183.26 54.52
539283.05 6600182.87 54.52
539282.29 6600182.49 54.52
539281.49 6600182.09 54.53
539280.71 6600181.69 54.53
539279.93 6600181.30 54.49
539279.18 6600180.92 54.43
539278.33 6600180.50 54.43
539277.50 6600180.08 54.42
539276.67 6600179.66 54.38
539275.83 6600179.24 54.35
539274.96 6600178.80 54.32
539274.09 6600178.36 54.29
539273.17 6600177.90 54.27
539272.27 6600177.45 54.24
539271.32 6600176.97 54.21
539270.40 6600176.51 54.17
539269.42 6600176.02 54.13
539268.44 6600175.52 54.11
539267.47 6600175.03 54.06
539266.47 6600174.53 53.99
539265.48 6600174.03 53.93
539264.43 6600173.50 53.87
539263.28 6600172.93 53.88
539262.18 6600172.37 53.83
539261.08 6600171.82 53.77
539259.93 6600171.24 53.72
539258.79 6600170.66 53.65
539257.61 6600170.07 53.57
539256.39 6600169.46 53.53
539255.08 6600168.80 53.49
539253.84 6600168.18 53.42
539252.49 6600167.49 53.38
539251.11 6600166.80 53.34
539249.68 6600166.08 53.31
539248.13 6600165.30 53.33
539246.60 6600164.53 53.30
539245.11 6600163.78 53.25
539243.57 6600163.01 53.17
539242.06 6600162.25 53.07
539240.36 6600161.40 53.03
539238.66 6600160.54 52.99
539440.31 6600260.74 57.46
539438.14 6600259.65 57.39
539436.03 6600258.58 57.33
539434.01 6600257.57 57.26
539431.98 6600256.54 57.18
539430.06 6600255.57 57.10
539428.18 6600254.62 57.03
539426.38 6600253.72 56.97
539424.60 6600252.82 56.90
539422.92 6600251.97 56.84
539421.31 6600251.16 56.82
539419.70 6600250.35 56.75
539418.12 6600249.55 56.70
539416.68 6600248.83 56.69
539415.24 6600248.10 56.67
539413.82 6600247.39 56.63
539412.38 6600246.66 56.57
539411.01 6600245.97 56.50
539409.65 6600245.28 56.45
539408.35 6600244.63 56.40
539407.03 6600243.97 56.33
539405.74 6600243.32 56.24
539404.46 6600242.67 56.15
539403.28 6600242.07 56.09
539402.12 6600241.49 56.04
539400.97 6600240.91 55.99
539399.87 6600240.35 55.94
539398.79 6600239.81 55.91
539397.75 6600239.28 55.88
539396.73 6600238.77 55.87
539395.73 6600238.27 55.83
539394.73 6600237.76 55.80
539393.83 6600237.31 55.82
539392.90 6600236.84 55.82
539391.96 6600236.37 55.77
539391.03 6600235.90 55.75
539390.14 6600235.45 55.71
539389.23 6600234.99 55.67
539388.40 6600234.57 55.66
539387.53 6600234.13 55.62
539386.72 6600233.73 55.62
539385.91 6600233.32 55.61
539385.12 6600232.92 55.59
539384.34 6600232.53 55.59
539383.57 6600232.14 55.57
539382.80 6600231.75 55.55
539382.06 6600231.37 55.52
539381.31 6600231.00 55.49
539380.56 6600230.62 55.45
539379.87 6600230.27 55.45
539379.16 6600229.92 55.44
539378.49 6600229.58 55.45
539377.80 6600229.23 55.43
539377.18 6600228.91 55.47
539376.49 6600228.57 55.43
539375.86 6600228.25 55.44
539375.21 6600227.92 55.44
539374.58 6600227.60 55.42
539373.94 6600227.28 55.40
539373.34 6600226.98 55.40
539372.72 6600226.67 55.39
539372.15 6600226.38 55.41
539371.52 6600226.06 55.37
539370.91 6600225.75 55.31
539370.34 6600225.47 55.34
539369.76 6600225.17 55.31
539369.20 6600224.89 55.31
539368.65 6600224.62 55.32
539368.08 6600224.33 55.30
539367.54 6600224.06 55.29
539367.03 6600223.80 55.31
539366.48 6600223.52 55.29
539365.95 6600223.25 55.28
539365.43 6600222.99 55.28
539364.90 6600222.72 55.25
539364.39 6600222.47 55.26
539363.87 6600222.21 55.23
539363.37 6600221.95 55.23
539362.88 6600221.71 55.24
539362.38 6600221.45 55.22
539361.90 6600221.21 55.22
539361.41 6600220.96 55.23
539360.95 6600220.73 55.26
539360.45 6600220.48 55.20
539359.98 6600220.24 55.19
539359.50 6600220.00 55.17
539359.05 6600219.77 55.19
539358.59 6600219.54 55.19
539358.12 6600219.31 55.16
539357.66 6600219.07 55.14
539357.22 6600218.85 55.14
539356.78 6600218.63 55.17
539356.34 6600218.41 55.16
539355.90 6600218.19 55.14
539355.46 6600217.96 55.13
539355.03 6600217.75 55.13
539354.59 6600217.53 55.12
539354.17 6600217.31 55.10
539353.73 6600217.09 55.07
539353.30 6600216.88 55.04
539352.89 6600216.67 55.07
539352.48 6600216.46 55.07
539352.08 6600216.26 55.11
539351.68 6600216.06 55.14
539351.25 6600215.84 55.08
539350.86 6600215.64 55.10
539350.44 6600215.43 55.07
539350.06 6600215.24 55.14
539349.65 6600215.03 55.11
539349.26 6600214.84 55.12
539348.85 6600214.63 55.09
539348.44 6600214.43 55.02
539348.07 6600214.24 55.09
539347.66 6600214.03 55.00
539347.28 6600213.84 55.06
539346.89 6600213.64 54.99
539346.52 6600213.45 55.03
539346.14 6600213.26 55.08
539345.77 6600213.08 55.12
539345.36 6600212.87 54.98
539345.00 6600212.69 55.05
539344.63 6600212.50 55.14
539344.25 6600212.31 55.06
539343.85 6600212.11 55.00
539343.49 6600211.93 55.04
539343.12 6600211.74 55.05
539342.77 6600211.56 55.15
539342.38 6600211.37 55.06
539342.01 6600211.18 55.04
539341.64 6600211.00 55.07
539341.28 6600210.81 55.08
539340.91 6600210.63 55.06
539340.54 6600210.44 55.01
539340.17 6600210.25 55.00
539339.81 6600210.07 55.02
539339.44 6600209.89 55.02
539339.09 6600209.71 55.03
539338.72 6600209.52 55.02
539338.36 6600209.34 55.01
539338.00 6600209.16 54.95
539337.64 6600208.98 54.97
539337.29 6600208.80 55.01
539336.92 6600208.62 54.97
539336.57 6600208.44 54.99
539336.20 6600208.25 54.98
539335.85 6600208.08 55.00
539335.49 6600207.89 55.03
539335.13 6600207.71 55.01
539334.77 6600207.53 54.99
539334.42 6600207.35 54.96
539334.06 6600207.17 54.95
539333.70 6600206.99 54.92
539333.34 6600206.81 54.92
539332.99 6600206.63 54.91
539332.63 6600206.45 54.91
539332.28 6600206.27 54.91
539331.91 6600206.09 54.91
539331.56 6600205.91 54.93
539331.19 6600205.73 54.92
539330.84 6600205.55 54.90
539330.48 6600205.37 54.90
539330.12 6600205.19 54.91
539329.77 6600205.01 54.90
539329.41 6600204.83 54.87
539329.05 6600204.65 54.92
539328.68 6600204.46 54.91
539328.32 6600204.28 54.95
539327.96 6600204.10 54.88
539327.59 6600203.91 54.95
539327.23 6600203.73 54.93
539326.87 6600203.55 54.87
539326.49 6600203.36 54.97
539326.14 6600203.18 54.90
539325.77 6600202.99 54.89
539325.40 6600202.81 54.91
539325.03 6600202.62 54.89
539324.66 6600202.43 54.91
539324.28 6600202.24 54.92
539323.93 6600202.07 54.84
539323.54 6600201.87 54.91
539323.16 6600201.68 54.94
539322.79 6600201.49 54.88
539322.42 6600201.30 54.88
539322.03 6600201.11 54.89
539321.67 6600200.92 54.86
539321.28 6600200.73 54.88
539320.90 6600200.54 54.87
539320.51 6600200.34 54.91
539320.12 6600200.14 54.89
539319.72 6600199.94 54.94
539319.36 6600199.76 54.81
539318.94 6600199.55 54.93
539318.57 6600199.36 54.86
539318.14 6600199.14 54.98
539317.73 6600198.94 54.98
539317.36 6600198.75 54.91
539316.96 6600198.55 54.91
539316.59 6600198.36 54.80
539316.11 6600198.12 55.00
539315.76 6600197.95 54.85
539315.34 6600197.73 54.87
539314.94 6600197.53 54.84
539314.54 6600197.33 54.79
539314.05 6600197.08 54.99
539313.68 6600196.90 54.84
539313.23 6600196.67 54.91
539312.80 6600196.45 54.93
539312.41 6600196.26 54.83
539311.96 6600196.03 54.89
539311.51 6600195.80 54.92
539311.09 6600195.59 54.88
539310.64 6600195.36 54.88
539310.19 6600195.14 54.90
539309.73 6600194.91 54.91
539309.29 6600194.68 54.90
539308.83 6600194.45 54.90
539308.38 6600194.23 54.88
539307.93 6600194.00 54.85
539307.48 6600193.77 54.83
539306.99 6600193.52 54.86
539306.48 6600193.27 54.92
539306.03 6600193.04 54.87
539305.56 6600192.80 54.85
539305.06 6600192.55 54.87
539304.56 6600192.30 54.88
539304.08 6600192.05 54.85
539303.58 6600191.81 54.84
539303.07 6600191.55 54.86
539302.57 6600191.30 54.85
539302.05 6600191.03 54.85
539301.54 6600190.77 54.85
539301.03 6600190.52 54.83
539300.50 6600190.25 54.81
539299.96 6600189.98 54.82
539299.40 6600189.70 54.83
539298.87 6600189.43 54.82
539298.30 6600189.14 54.82
539297.75 6600188.87 54.81
539297.17 6600188.57 54.82
539296.61 6600188.29 54.80
539296.05 6600188.01 54.77
539295.47 6600187.72 54.76
539294.89 6600187.42 54.73
539294.31 6600187.13 54.71
539293.09 6600186.52 54.69
539292.47 6600186.20 54.67
539291.82 6600185.88 54.69
539291.16 6600185.54 54.71
539290.52 6600185.22 54.70
539289.86 6600184.89 54.69
539289.21 6600184.56 54.67
539288.52 6600184.21 54.68
539287.85 6600183.87 54.66
539287.17 6600183.53 54.64
539286.48 6600183.18 54.61
539285.78 6600182.83 54.59
539285.05 6600182.46 54.57
539284.31 6600182.09 54.58
539283.53 6600181.70 54.59
539282.79 6600181.32 54.58
539282.04 6600180.94 54.53
539281.29 6600180.57 54.49
539280.49 6600180.16 54.48
539279.69 6600179.76 54.47
539278.88 6600179.35 54.43
539278.08 6600178.95 54.39
539277.24 6600178.53 54.36
539276.38 6600178.09 54.35
539275.51 6600177.65 54.32
539274.62 6600177.20 54.31
539273.68 6600176.73 54.31
539272.79 6600176.28 54.27
539271.89 6600175.83 54.20
539270.95 6600175.35 54.17
539269.97 6600174.86 54.14
539268.99 6600174.37 54.11
539267.98 6600173.86 54.09
539266.91 6600173.32 54.08
539265.89 6600172.80 54.04
539264.86 6600172.28 53.96
539263.80 6600171.75 53.91
539262.67 6600171.18 53.88
539261.56 6600170.62 53.82
539260.42 6600170.05 53.76
539259.29 6600169.48 53.69
539258.11 6600168.88 53.61
539256.85 6600168.25 53.59
539255.53 6600167.58 53.57
539254.28 6600166.95 53.50
539252.96 6600166.29 53.43
539251.61 6600165.61 53.38
539250.16 6600164.87 53.36
539248.71 6600164.15 53.32
539247.21 6600163.39 53.27
539245.67 6600162.61 53.24
539244.09 6600161.81 53.19
539242.50 6600161.01 53.14
539240.88 6600160.20 53.05
539239.23 6600159.37 52.97
539440.90 6600259.82 57.51
539438.72 6600258.72 57.42
539436.51 6600257.60 57.31
539434.41 6600256.54 57.20
539432.47 6600255.56 57.16
539430.60 6600254.61 57.11
539428.71 6600253.66 57.04
539426.89 6600252.74 56.96
539425.09 6600251.83 56.88
539423.40 6600250.98 56.82
539421.77 6600250.15 56.78
539420.24 6600249.38 56.76
539418.68 6600248.59 56.73
539417.19 6600247.84 56.68
539415.72 6600247.09 56.64
539414.29 6600246.37 56.59
539412.85 6600245.64 56.53
539411.48 6600244.95 56.47
539410.11 6600244.26 56.41
539408.83 6600243.61 56.37
539407.56 6600242.97 56.33
539406.33 6600242.35 56.28
539405.07 6600241.71 56.22
539403.86 6600241.10 56.14
539402.70 6600240.51 56.08
539401.55 6600239.93 56.03
539400.45 6600239.38 55.99
539399.36 6600238.83 55.96
539398.31 6600238.29 55.91
539397.20 6600237.73 55.81
539396.21 6600237.23 55.79
539395.27 6600236.76 55.81
539394.36 6600236.30 55.83
539393.37 6600235.79 55.77
539392.43 6600235.32 55.72
539391.51 6600234.86 55.70
539390.63 6600234.41 55.67
539389.75 6600233.96 55.66
539388.93 6600233.55 55.67
539388.08 6600233.12 55.65
539387.24 6600232.70 55.61
539386.43 6600232.29 55.60
539385.66 6600231.90 55.60
539384.85 6600231.49 55.57
539384.09 6600231.11 55.56
539383.31 6600230.71 55.53
539382.55 6600230.33 55.49
539381.83 6600229.96 55.48
539381.08 6600229.58 55.44
539380.40 6600229.24 55.45
539379.69 6600228.88 55.44
539379.02 6600228.54 55.44
539378.35 6600228.20 55.45
539377.67 6600227.86 55.42
539377.00 6600227.52 55.41
539376.37 6600227.20 55.41
539375.69 6600226.86 55.36
539375.07 6600226.54 55.36
539374.44 6600226.23 55.36
539373.86 6600225.93 55.39
539373.23 6600225.62 55.37
539372.64 6600225.31 55.35
539372.04 6600225.01 55.35
539371.45 6600224.71 55.33
539370.85 6600224.41 55.31
539370.30 6600224.14 55.32
539369.73 6600223.85 55.31
539369.19 6600223.57 55.32
539368.61 6600223.28 55.29
539368.07 6600223.01 55.28
539367.55 6600222.75 55.30
539367.01 6600222.47 55.29
539366.46 6600222.19 55.24
539365.92 6600221.92 55.21
539365.42 6600221.67 55.23
539364.95 6600221.43 55.31
539364.40 6600221.15 55.22
539363.90 6600220.90 55.24
539363.42 6600220.66 55.25
539362.91 6600220.40 55.22
539362.43 6600220.16 55.23
539361.95 6600219.91 55.23
539361.48 6600219.67 55.24
539360.96 6600219.42 55.17
539360.50 6600219.18 55.18
539360.04 6600218.95 55.19
539359.57 6600218.71 55.17
539359.10 6600218.47 55.14
539358.65 6600218.25 55.14
539358.20 6600218.01 55.14
539357.75 6600217.79 55.14
539357.28 6600217.55 55.07
539356.85 6600217.33 55.10
539356.43 6600217.12 55.12
539355.98 6600216.90 55.10
539355.56 6600216.68 55.11
539355.12 6600216.46 55.10
539354.69 6600216.24 55.08
539354.26 6600216.02 55.05
539353.84 6600215.82 55.06
539353.43 6600215.61 55.09
539353.07 6600215.42 55.23
539352.61 6600215.19 55.12
539352.19 6600214.98 55.06
539351.77 6600214.77 55.05
539351.40 6600214.58 55.14
539350.96 6600214.36 55.02
539350.60 6600214.17 55.13
539350.18 6600213.96 55.10
539349.78 6600213.76 55.07
539349.38 6600213.56 55.06
539348.99 6600213.36 55.05
539348.59 6600213.16 55.04
539348.20 6600212.96 55.02
539347.81 6600212.77 55.04
539347.43 6600212.57 55.03
539347.05 6600212.38 55.01
539346.67 6600212.19 55.06
539346.28 6600211.99 55.00
539345.88 6600211.79 54.93
539345.53 6600211.61 55.01
539345.15 6600211.42 55.04
539344.78 6600211.23 55.05
539344.41 6600211.04 55.07
539344.03 6600210.85 55.05
539343.66 6600210.67 55.08
539343.29 6600210.48 55.08
539342.91 6600210.29 55.01
539342.55 6600210.10 55.04
539342.17 6600209.91 55.02
539341.80 6600209.73 54.96
539341.43 6600209.54 54.98
539341.06 6600209.35 54.91
539340.71 6600209.17 55.00
539340.35 6600208.99 55.03
539339.97 6600208.80 54.96
539339.62 6600208.62 54.98
539339.25 6600208.44 54.93
539338.90 6600208.26 54.97
539338.54 6600208.08 54.99
539338.18 6600207.90 55.04
539337.82 6600207.72 54.96
539337.46 6600207.53 54.97
539337.10 6600207.35 54.97
539336.74 6600207.17 54.98
539336.39 6600206.99 54.97
539336.03 6600206.81 54.93
539335.67 6600206.63 54.93
539335.31 6600206.44 54.92
539334.96 6600206.27 54.91
539334.60 6600206.08 54.90
539334.24 6600205.91 54.88
539333.88 6600205.72 54.89
539333.53 6600205.54 54.89
539333.17 6600205.36 54.89
539332.81 6600205.19 54.89
539332.45 6600205.00 54.90
539332.10 6600204.82 54.87
539331.73 6600204.64 54.89
539331.38 6600204.46 54.91
539331.02 6600204.28 54.95
539330.66 6600204.10 54.91
539330.31 6600203.92 54.89
539329.94 6600203.73 54.88
539329.59 6600203.55 54.87
539329.22 6600203.37 54.94
539328.86 6600203.19 54.92
539328.50 6600203.00 54.91
539328.14 6600202.82 54.89
539327.77 6600202.64 54.87
539327.40 6600202.45 54.94
539327.04 6600202.26 54.92
539326.68 6600202.08 54.91
539326.31 6600201.89 54.89
539325.95 6600201.71 54.86
539325.57 6600201.52 54.90
539325.20 6600201.33 54.90
539324.84 6600201.15 54.84
539324.46 6600200.96 54.89
539324.08 6600200.77 54.89
539323.71 6600200.58 54.88
539323.34 6600200.39 54.85
539322.97 6600200.21 54.82
539322.58 6600200.01 54.88
539322.20 6600199.82 54.87
539321.83 6600199.63 54.83
539321.43 6600199.43 54.89
539321.06 6600199.24 54.87
539320.67 6600199.04 54.88
539320.28 6600198.85 54.88
539319.88 6600198.65 54.89
539319.50 6600198.46 54.86
539319.11 6600198.26 54.84
539318.72 6600198.06 54.85
539318.32 6600197.85 54.85
539317.93 6600197.66 54.83
539317.51 6600197.45 54.86
539317.11 6600197.25 54.87
539316.71 6600197.04 54.83
539316.32 6600196.84 54.81
539315.90 6600196.63 54.82
539315.48 6600196.42 54.85
539315.05 6600196.20 54.86
539314.64 6600196.00 54.87
539314.22 6600195.78 54.85
539313.80 6600195.57 54.85
539313.37 6600195.35 54.84
539312.95 6600195.14 54.84
539312.50 6600194.91 54.89
539312.05 6600194.68 54.92
539311.62 6600194.47 54.91
539311.19 6600194.25 54.87
539310.75 6600194.03 54.87
539310.29 6600193.80 54.87
539309.81 6600193.55 54.94
539309.39 6600193.34 54.86
539308.93 6600193.11 54.87
539308.48 6600192.88 54.83
539308.01 6600192.64 54.85
539307.56 6600192.41 54.81
539307.07 6600192.17 54.84
539306.59 6600191.93 54.82
539306.12 6600191.69 54.81
539305.63 6600191.44 54.81
539305.15 6600191.20 54.80
539304.63 6600190.94 54.83
539304.12 6600190.67 54.86
539303.61 6600190.42 54.87
539303.13 6600190.18 54.82
539302.62 6600189.92 54.81
539302.10 6600189.66 54.81
539301.62 6600189.42 54.74
539301.08 6600189.14 54.75
539300.54 6600188.87 54.77
539299.94 6600188.57 54.84
539299.45 6600188.32 54.76
539298.85 6600188.01 54.82
539298.31 6600187.74 54.80
539297.72 6600187.44 54.82
539297.16 6600187.16 54.80
539296.59 6600186.87 54.77
539296.02 6600186.58 54.76
539295.41 6600186.27 54.77
539294.82 6600185.98 54.75
539294.17 6600185.65 54.79
539293.59 6600185.35 54.75
539292.96 6600185.03 54.75
539292.37 6600184.74 54.69
539291.68 6600184.39 54.74
539291.04 6600184.07 54.73
539290.38 6600183.73 54.72
539289.72 6600183.40 54.71
539289.07 6600183.07 54.67
539288.39 6600182.73 54.66
539287.71 6600182.38 54.65
539287.01 6600182.03 54.62
539286.29 6600181.67 54.63
539285.58 6600181.30 54.60
539284.86 6600180.94 54.58
539284.14 6600180.58 54.53
539283.38 6600180.20 54.53
539282.60 6600179.80 54.52
539281.82 6600179.40 54.52
539281.02 6600179.00 54.50
539280.24 6600178.61 54.46
539279.43 6600178.20 54.43
539278.58 6600177.77 54.44
539277.73 6600177.34 54.42
539276.89 6600176.92 54.38
539276.03 6600176.48 54.34
539275.14 6600176.03 54.33
539274.23 6600175.57 54.30
539273.38 6600175.14 54.23
539272.42 6600174.66 54.21
539271.47 6600174.17 54.19
539270.48 6600173.68 54.17
539269.50 6600173.18 54.14
539268.50 6600172.67 54.11
539267.46 6600172.15 54.08
539266.45 6600171.64 54.03
539265.38 6600171.09 53.99
539264.31 6600170.56 53.94
539263.19 6600169.99 53.90
539262.12 6600169.45 53.82
539261.02 6600168.89 53.73
539259.90 6600168.33 53.64
539258.66 6600167.70 53.61
539257.39 6600167.06 53.60
539256.12 6600166.42 53.54
539254.88 6600165.79 53.47
539253.49 6600165.09 53.44
539252.12 6600164.40 53.41
539250.69 6600163.67 53.37
539249.28 6600162.96 53.31
539247.79 6600162.21 53.26
539246.31 6600161.46 53.19
539244.72 6600160.66 53.15
539243.08 6600159.83 53.12
539241.40 6600158.98 53.07
539239.73 6600158.13 53.01
539441.39 6600258.80 57.50
539439.21 6600257.69 57.41
539437.08 6600256.62 57.35
539435.04 6600255.58 57.26
539433.07 6600254.58 57.22
539431.17 6600253.62 57.15
539429.29 6600252.67 57.09
539427.49 6600251.76 57.01
539425.63 6600250.82 56.90
539423.86 6600249.92 56.78
539422.25 6600249.10 56.76
539420.74 6600248.34 56.76
539419.22 6600247.57 56.74
539417.75 6600246.82 56.71
539416.30 6600246.09 56.69
539414.90 6600245.38 56.66
539413.45 6600244.65 56.59
539412.06 6600243.94 56.51
539410.67 6600243.24 56.43
539409.39 6600242.59 56.39
539408.13 6600241.95 56.37
539406.89 6600241.32 56.31
539405.61 6600240.67 56.22
539404.40 6600240.06 56.15
539403.24 6600239.47 56.10
539402.05 6600238.87 56.01
539400.96 6600238.32 55.98
539399.89 6600237.78 55.96
539398.83 6600237.24 55.91
539397.78 6600236.71 55.86
539396.79 6600236.21 55.84
539395.81 6600235.71 55.83
539394.87 6600235.23 55.81
539393.89 6600234.74 55.77
539392.99 6600234.28 55.75
539392.09 6600233.83 55.74
539391.19 6600233.37 55.71
539390.25 6600232.89 55.63
539389.40 6600232.46 55.60
539388.60 6600232.06 55.63
539387.80 6600231.65 55.64
539386.96 6600231.23 55.60
539386.17 6600230.83 55.58
539385.37 6600230.42 55.55
539384.60 6600230.03 55.53
539383.86 6600229.66 55.54
539383.12 6600229.29 55.53
539382.41 6600228.92 55.53
539381.66 6600228.54 55.49
539380.94 6600228.18 55.46
539380.22 6600227.81 55.44
539379.55 6600227.48 55.44
539378.89 6600227.14 55.46
539378.22 6600226.80 55.45
539377.56 6600226.47 55.44
539376.90 6600226.13 55.41
539376.26 6600225.81 55.41
539375.64 6600225.49 55.41
539375.01 6600225.17 55.40
539374.39 6600224.86 55.38
539373.76 6600224.54 55.35
539373.17 6600224.24 55.34
539372.56 6600223.93 55.33
539371.98 6600223.64 55.32
539371.38 6600223.34 55.29
539370.81 6600223.05 55.28
539370.26 6600222.76 55.30
539369.72 6600222.49 55.31
539369.15 6600222.21 55.29
539368.62 6600221.94 55.30
539368.08 6600221.66 55.29
539367.53 6600221.38 55.26
539367.00 6600221.12 55.24
539366.47 6600220.85 55.23
539365.98 6600220.60 55.26
539365.44 6600220.33 55.22
539364.94 6600220.07 55.23
539364.43 6600219.81 55.21
539363.94 6600219.57 55.22
539363.44 6600219.31 55.21
539362.96 6600219.07 55.20
539362.46 6600218.82 55.19
539361.98 6600218.57 55.16
539361.51 6600218.33 55.18
539361.06 6600218.10 55.20
539360.56 6600217.85 55.15
539360.11 6600217.62 55.15
539359.62 6600217.38 55.10
539359.19 6600217.16 55.14
539358.73 6600216.93 55.13
539358.29 6600216.70 55.13
539357.85 6600216.48 55.14
539357.42 6600216.26 55.16
539356.97 6600216.04 55.12
539356.53 6600215.81 55.11
539356.11 6600215.60 55.13
539355.66 6600215.37 55.09
539355.24 6600215.16 55.10
539354.83 6600214.95 55.13
539354.39 6600214.73 55.08
539353.98 6600214.52 55.10
539353.56 6600214.31 55.07
539353.11 6600214.08 54.99
539352.73 6600213.89 55.05
539352.32 6600213.68 55.04
539351.96 6600213.50 55.18
539351.48 6600213.25 54.95
539351.12 6600213.07 55.06
539350.73 6600212.88 55.12
539350.31 6600212.66 55.03
539349.92 6600212.46 55.04
539349.54 6600212.27 55.07
539349.14 6600212.07 55.04
539348.75 6600211.87 55.02
539348.36 6600211.67 55.03
539347.97 6600211.47 55.00
539347.59 6600211.29 55.02
539347.21 6600211.09 55.02
539346.84 6600210.90 55.04
539346.45 6600210.70 55.03
539346.08 6600210.52 55.06
539345.69 6600210.32 55.03
539345.34 6600210.14 55.10
539344.96 6600209.95 55.10
539344.58 6600209.76 55.08
539344.21 6600209.57 55.09
539343.84 6600209.38 55.05
539343.46 6600209.19 55.02
539343.10 6600209.01 55.05
539342.73 6600208.82 55.06
539342.35 6600208.63 54.95
539341.99 6600208.44 55.01
539341.63 6600208.26 55.03
539341.25 6600208.07 54.98
539340.90 6600207.89 55.01
539340.53 6600207.71 55.01
539340.17 6600207.52 54.98
539339.81 6600207.34 55.07
539339.44 6600207.16 54.95
539339.09 6600206.98 54.98
539338.72 6600206.79 55.00
539338.38 6600206.62 55.00
539338.01 6600206.43 54.95
539337.65 6600206.25 54.95
539337.29 6600206.06 54.96
539336.93 6600205.88 54.97
539336.58 6600205.70 54.92
539336.22 6600205.52 54.91
539335.86 6600205.34 54.93
539335.51 6600205.16 54.89
539335.14 6600204.98 54.90
539334.79 6600204.80 54.90
539334.43 6600204.62 54.90
539334.08 6600204.44 54.89
539333.72 6600204.25 54.89
539333.36 6600204.07 54.87
539333.01 6600203.89 54.88
539332.65 6600203.71 54.88
539332.29 6600203.53 54.90
539331.57 6600203.17 54.92
539331.22 6600202.99 54.90
539330.86 6600202.81 54.90
539330.50 6600202.62 54.89
539330.14 6600202.44 54.88
539329.78 6600202.26 54.86
539329.42 6600202.08 54.89
539329.06 6600201.89 54.86
539328.69 6600201.71 54.90
539328.32 6600201.52 54.98
539327.97 6600201.34 54.84
539327.59 6600201.15 54.95
539327.23 6600200.97 54.90
539326.87 6600200.78 54.87
539326.50 6600200.60 54.87
539326.13 6600200.41 54.89
539325.38 6600200.03 54.94
539325.02 6600199.85 54.88
539324.65 6600199.66 54.85
539324.27 6600199.47 54.90
539323.90 6600199.28 54.85
539323.51 6600199.08 54.89
539323.14 6600198.90 54.84
539322.76 6600198.70 54.89
539322.38 6600198.51 54.88
539321.99 6600198.31 54.89
539321.64 6600198.13 54.79
539321.23 6600197.93 54.86
539320.83 6600197.73 54.90
539320.47 6600197.54 54.79
539320.08 6600197.34 54.80
539319.67 6600197.14 54.83
539319.30 6600196.95 54.77
539318.89 6600196.74 54.82
539318.49 6600196.54 54.83
539318.05 6600196.32 54.91
539317.63 6600196.10 55.00
539317.25 6600195.91 54.89
539316.85 6600195.71 54.89
539316.44 6600195.50 54.87
539316.02 6600195.29 54.91
539315.61 6600195.08 54.86
539315.19 6600194.87 54.88
539314.77 6600194.65 54.88
539314.35 6600194.44 54.88
539313.92 6600194.23 54.86
539313.48 6600194.00 54.91
539313.07 6600193.79 54.87
539312.63 6600193.57 54.87
539312.19 6600193.35 54.89
539311.74 6600193.12 54.89
539310.87 6600192.68 54.84
539310.39 6600192.44 54.90
539309.51 6600191.99 54.84
539309.04 6600191.75 54.85
539308.58 6600191.52 54.83
539308.13 6600191.29 54.79
539307.65 6600191.05 54.81
539307.22 6600190.83 54.71
539306.69 6600190.56 54.81
539306.21 6600190.32 54.77
539305.71 6600190.07 54.80
539305.19 6600189.80 54.84
539304.71 6600189.56 54.81
539304.20 6600189.30 54.80
539303.67 6600189.03 54.85
539303.16 6600188.77 54.83
539302.67 6600188.53 54.80
539302.16 6600188.27 54.79
539301.64 6600188.00 54.76
539301.10 6600187.73 54.78
539300.55 6600187.45 54.78
539300.02 6600187.18 54.75
539299.44 6600186.89 54.78
539298.87 6600186.60 54.81
539298.29 6600186.31 54.80
539297.76 6600186.04 54.75
539297.15 6600185.73 54.79
539296.58 6600185.44 54.77
539295.98 6600185.14 54.76
539295.39 6600184.83 54.75
539294.78 6600184.52 54.74
539294.17 6600184.22 54.74
539293.54 6600183.90 54.73
539292.92 6600183.58 54.72
539292.25 6600183.25 54.74
539291.62 6600182.93 54.72
539290.95 6600182.59 54.72
539290.31 6600182.26 54.70
539289.63 6600181.92 54.68
539288.98 6600181.59 54.64
539288.29 6600181.24 54.63
539287.53 6600180.85 54.68
539286.85 6600180.51 54.64
539286.14 6600180.15 54.61
539285.41 6600179.78 54.60
539284.63 6600179.39 54.62
539283.87 6600179.00 54.62
539283.18 6600178.65 54.52
539282.44 6600178.28 54.47
539281.63 6600177.87 54.46
539280.83 6600177.46 54.45
539280.00 6600177.04 54.44
539279.16 6600176.62 54.44
539278.30 6600176.18 54.42
539277.47 6600175.76 54.39
539276.57 6600175.30 54.38
539275.68 6600174.85 54.37
539274.78 6600174.40 54.33
539273.89 6600173.95 54.29
539272.95 6600173.47 54.26
539272.00 6600172.99 54.24
539271.01 6600172.49 54.21
539270.05 6600172.00 54.17
539269.09 6600171.52 54.11
539268.08 6600171.00 54.05
539267.06 6600170.49 54.00
539265.96 6600169.93 53.98
539264.89 6600169.39 53.95
539263.79 6600168.83 53.88
539262.70 6600168.28 53.82
539261.56 6600167.70 53.76
539260.35 6600167.09 53.74
539259.14 6600166.48 53.68
539257.91 6600165.85 53.64
539256.65 6600165.22 53.58
539255.39 6600164.58 53.52
539253.99 6600163.87 53.50
539252.66 6600163.19 53.44
539251.21 6600162.46 53.41
539249.79 6600161.74 53.36
539248.30 6600160.99 53.31
539246.82 6600160.24 53.24
539245.28 6600159.46 53.16
539243.72 6600158.67 53.09
539242.10 6600157.85 53.01
539441.98 6600257.83 57.53
539439.79 6600256.72 57.44
539437.63 6600255.62 57.35
539435.57 6600254.58 57.26
539433.45 6600253.50 57.12
539431.59 6600252.56 57.08
539429.73 6600251.62 57.03
539427.96 6600250.71 56.97
539426.19 6600249.82 56.91
539424.48 6600248.95 56.83
539422.78 6600248.08 56.75
539421.26 6600247.31 56.74
539419.75 6600246.54 56.73
539418.34 6600245.83 56.74
539416.83 6600245.07 56.69
539415.39 6600244.33 56.62
539413.95 6600243.60 56.56
539412.58 6600242.91 56.50
539411.22 6600242.21 56.44
539409.92 6600241.56 56.39
539408.64 6600240.90 56.34
539407.42 6600240.29 56.31
539406.18 6600239.66 56.25
539404.97 6600239.04 56.17
539403.79 6600238.44 56.10
539402.60 6600237.84 56.02
539401.47 6600237.27 55.95
539400.39 6600236.72 55.92
539399.33 6600236.18 55.87
539398.26 6600235.64 55.81
539397.31 6600235.16 55.82
539396.35 6600234.67 55.82
539395.43 6600234.20 55.83
539394.48 6600233.72 55.80
539393.54 6600233.24 55.76
539392.58 6600232.75 55.70
539391.71 6600232.31 55.68
539390.85 6600231.88 55.68
539390.02 6600231.45 55.68
539389.17 6600231.02 55.66
539388.31 6600230.59 55.60
539387.50 6600230.17 55.59
539386.69 6600229.76 55.55
539385.93 6600229.38 55.57
539385.19 6600229.00 55.57
539384.40 6600228.60 55.54
539383.68 6600228.24 55.54
539382.96 6600227.87 55.54
539382.19 6600227.48 55.48
539381.51 6600227.13 55.49
539380.79 6600226.77 55.46
539380.09 6600226.41 55.42
539379.43 6600226.08 55.45
539378.78 6600225.75 55.46
539378.09 6600225.40 55.42
539377.43 6600225.06 55.39
539376.77 6600224.73 55.37
539376.14 6600224.41 55.35
539375.51 6600224.09 55.35
539374.92 6600223.79 55.36
539374.30 6600223.48 55.35
539373.71 6600223.17 55.33
539373.10 6600222.86 55.31
539372.53 6600222.57 55.32
539371.96 6600222.29 55.34
539371.40 6600222.00 55.34
539370.83 6600221.71 55.34
539370.27 6600221.43 55.32
539369.68 6600221.13 55.27
539369.14 6600220.85 55.25
539368.62 6600220.59 55.27
539368.06 6600220.30 55.23
539367.53 6600220.04 55.21
539367.02 6600219.78 55.23
539366.49 6600219.51 55.21
539366.00 6600219.26 55.25
539365.49 6600219.00 55.23
539364.98 6600218.74 55.20
539364.48 6600218.49 55.20
539363.97 6600218.23 55.17
539363.49 6600217.99 55.17
539363.01 6600217.74 55.18
539362.53 6600217.50 55.16
539362.04 6600217.25 55.14
539361.57 6600217.01 55.13
539361.10 6600216.77 55.12
539360.64 6600216.54 55.11
539360.17 6600216.30 55.11
539359.73 6600216.08 55.13
539359.28 6600215.85 55.12
539358.83 6600215.62 55.10
539358.38 6600215.39 55.11
539357.93 6600215.16 55.07
539357.54 6600214.97 55.18
539357.08 6600214.73 55.12
539356.23 6600214.30 55.15
539355.79 6600214.08 55.09
539355.37 6600213.86 55.11
539354.98 6600213.66 55.17
539354.52 6600213.43 55.07
539354.10 6600213.22 55.04
539353.69 6600213.01 55.05
539353.32 6600212.82 55.15
539352.89 6600212.60 55.10
539352.48 6600212.40 55.09
539352.07 6600212.19 55.07
539351.67 6600211.98 55.04
539351.27 6600211.78 55.06
539350.87 6600211.58 55.03
539350.48 6600211.38 55.07
539350.08 6600211.17 55.01
539349.69 6600210.98 55.04
539349.29 6600210.78 55.00
539348.92 6600210.58 55.05
539348.52 6600210.38 54.98
539348.15 6600210.20 55.05
539347.76 6600210.00 55.00
539347.38 6600209.81 55.01
539347.00 6600209.61 55.02
539346.63 6600209.42 55.03
539346.25 6600209.23 55.06
539345.88 6600209.04 55.06
539345.50 6600208.85 55.05
539345.13 6600208.66 55.05
539344.76 6600208.47 55.05
539344.39 6600208.29 55.06
539343.64 6600207.91 55.00
539343.26 6600207.71 54.92
539342.91 6600207.54 55.01
539342.53 6600207.34 54.94
539342.17 6600207.16 54.97
539341.81 6600206.98 55.03
539341.45 6600206.80 55.04
539341.08 6600206.61 55.01
539340.73 6600206.43 55.06
539340.35 6600206.24 54.94
539339.99 6600206.06 54.93
539339.64 6600205.88 54.93
539339.29 6600205.70 54.98
539338.93 6600205.51 54.93
539338.56 6600205.33 54.97
539338.21 6600205.15 54.93
539337.84 6600204.96 54.94
539337.48 6600204.78 54.90
539337.13 6600204.60 54.93
539336.78 6600204.42 54.93
539336.42 6600204.24 54.90
539336.06 6600204.06 54.88
539335.70 6600203.88 54.87
539335.35 6600203.69 54.87
539334.98 6600203.51 54.87
539334.64 6600203.34 54.87
539334.28 6600203.15 54.87
539333.92 6600202.97 54.86
539333.20 6600202.61 54.95
539332.84 6600202.42 54.97
539332.13 6600202.06 54.90
539331.77 6600201.88 54.89
539331.42 6600201.70 54.92
539331.06 6600201.52 54.88
539330.70 6600201.34 54.82
539330.33 6600201.15 54.90
539329.98 6600200.97 54.88
539329.61 6600200.78 54.87
539329.25 6600200.60 54.85
539328.88 6600200.42 54.87
539328.52 6600200.23 54.90
539328.16 6600200.05 54.84
539327.81 6600199.87 54.78
539327.42 6600199.67 54.89
539327.05 6600199.48 54.92
539326.69 6600199.30 54.85
539326.33 6600199.12 54.81
539325.95 6600198.93 54.83
539325.59 6600198.74 54.81
539325.19 6600198.54 54.91
539324.86 6600198.37 54.72
539324.07 6600197.97 54.88
539323.69 6600197.78 54.89
539323.30 6600197.58 54.93
539322.95 6600197.40 54.83
539322.56 6600197.20 54.85
539322.18 6600197.01 54.83
539321.78 6600196.81 54.88
539321.42 6600196.63 54.78
539321.01 6600196.42 54.86
539320.62 6600196.22 54.84
539320.22 6600196.02 54.87
539319.83 6600195.82 54.87
539319.43 6600195.61 54.86
539319.04 6600195.41 54.86
539318.62 6600195.20 54.88
539318.23 6600195.00 54.87
539317.80 6600194.78 54.93
539317.41 6600194.59 54.87
539316.98 6600194.37 54.93
539316.60 6600194.18 54.84
539316.17 6600193.96 54.85
539315.76 6600193.75 54.84
539315.35 6600193.54 54.83
539314.92 6600193.33 54.83
539314.48 6600193.10 54.86
539314.04 6600192.88 54.90
539313.61 6600192.66 54.90
539313.19 6600192.45 54.86
539312.74 6600192.22 54.90
539312.34 6600192.02 54.79
539311.89 6600191.79 54.82
539311.44 6600191.56 54.82
539310.98 6600191.32 54.85
539310.52 6600191.09 54.85
539310.06 6600190.86 54.86
539309.60 6600190.62 54.84
539309.15 6600190.39 54.82
539308.70 6600190.17 54.77
539308.17 6600189.90 54.88
539307.74 6600189.68 54.78
539307.27 6600189.44 54.77
539306.75 6600189.18 54.81
539306.25 6600188.92 54.84
539305.78 6600188.69 54.78
539305.30 6600188.44 54.76
539304.79 6600188.18 54.75
539304.27 6600187.92 54.78
539303.19 6600187.37 54.85
539302.66 6600187.10 54.86
539302.16 6600186.85 54.80
539301.64 6600186.58 54.81
539301.11 6600186.31 54.77
539300.59 6600186.05 54.74
539300.00 6600185.75 54.78
539299.44 6600185.46 54.79
539298.88 6600185.18 54.77
539298.31 6600184.89 54.76
539297.72 6600184.59 54.77
539297.13 6600184.29 54.78
539296.55 6600184.00 54.75
539295.96 6600183.70 54.74
539295.33 6600183.38 54.75
539294.74 6600183.08 54.72
539294.12 6600182.76 54.70
539293.49 6600182.45 54.70
539292.85 6600182.12 54.69
539292.17 6600181.77 54.74
539291.53 6600181.45 54.70
539290.88 6600181.12 54.69
539290.19 6600180.77 54.69
539289.49 6600180.42 54.70
539288.81 6600180.07 54.69
539288.11 6600179.71 54.66
539287.41 6600179.36 54.65
539286.70 6600179.00 54.62
539286.00 6600178.64 54.57
539285.23 6600178.25 54.58
539284.47 6600177.86 54.58
539283.69 6600177.47 54.56
539282.94 6600177.09 54.53
539282.14 6600176.68 54.52
539281.36 6600176.29 54.49
539280.54 6600175.87 54.46
539279.72 6600175.46 54.44
539278.86 6600175.02 54.42
539278.11 6600174.64 54.32
539277.14 6600174.15 54.37
539276.26 6600173.70 54.36
539275.35 6600173.24 54.33
539274.43 6600172.77 54.31
539273.49 6600172.29 54.28
539272.55 6600171.81 54.25
539271.55 6600171.31 54.23
539270.60 6600170.83 54.18
539269.64 6600170.34 54.12
539268.61 6600169.82 54.08
539267.59 6600169.30 54.03
539266.54 6600168.77 53.97
539265.50 6600168.24 53.91
539264.38 6600167.67 53.87
539263.28 6600167.11 53.81
539262.13 6600166.53 53.75
539260.97 6600165.94 53.70
539259.74 6600165.32 53.66
539258.52 6600164.69 53.62
539257.26 6600164.05 53.55
539255.96 6600163.39 53.52
539254.53 6600162.67 53.52
539253.14 6600161.97 53.50
539251.77 6600161.27 53.41
539250.40 6600160.57 53.33
539248.93 6600159.83 53.26
539247.43 6600159.07 53.21
539245.91 6600158.30 53.12
539244.39 6600157.53 53.03
539442.49 6600256.82 57.51
539440.31 6600255.71 57.43
539438.16 6600254.62 57.35
539436.09 6600253.56 57.25
539434.14 6600252.57 57.21
539432.27 6600251.62 57.16
539430.37 6600250.65 57.09
539428.58 6600249.74 57.02
539426.80 6600248.84 56.96
539425.05 6600247.95 56.85
539423.35 6600247.09 56.78
539421.82 6600246.30 56.76
539420.29 6600245.53 56.74
539418.82 6600244.78 56.71
539417.32 6600244.02 56.65
539415.88 6600243.28 56.59
539414.47 6600242.56 56.54
539413.11 6600241.88 56.49
539411.76 6600241.19 56.44
539410.47 6600240.53 56.40
539409.18 6600239.88 56.35
539407.90 6600239.23 56.26
539406.66 6600238.59 56.20
539405.49 6600238.00 56.15
539404.32 6600237.40 56.09
539403.14 6600236.80 56.02
539402.05 6600236.25 55.98
539400.93 6600235.68 55.92
539399.87 6600235.14 55.87
539398.80 6600234.59 55.81
539397.85 6600234.11 55.82
539396.89 6600233.62 55.82
539395.95 6600233.15 55.81
539395.00 6600232.66 55.78
539394.07 6600232.19 55.74
539393.14 6600231.71 55.71
539392.25 6600231.27 55.68
539391.35 6600230.81 55.64
539390.44 6600230.34 55.56
539389.62 6600229.93 55.57
539388.89 6600229.55 55.64
539388.08 6600229.14 55.63
539387.28 6600228.73 55.60
539386.47 6600228.32 55.57
539385.71 6600227.94 55.56
539384.95 6600227.55 55.54
539384.20 6600227.17 55.52
539383.45 6600226.78 55.47
539382.72 6600226.42 55.46
539382.05 6600226.07 55.48
539381.32 6600225.70 55.45
539380.65 6600225.36 55.45
539379.92 6600224.99 55.39
539379.28 6600224.66 55.40
539378.62 6600224.33 55.40
539377.98 6600224.00 55.39
539377.36 6600223.69 55.43
539376.73 6600223.37 55.41
539376.06 6600223.03 55.35
539375.44 6600222.71 55.32
539374.82 6600222.40 55.31
539374.23 6600222.10 55.30
539373.64 6600221.79 55.30
539373.06 6600221.50 55.30
539372.49 6600221.21 55.32
539371.91 6600220.92 55.29
539371.34 6600220.62 55.28
539370.78 6600220.34 55.25
539370.21 6600220.05 55.23
539369.70 6600219.79 55.27
539369.15 6600219.51 55.23
539368.61 6600219.24 55.24
539368.09 6600218.97 55.24
539367.56 6600218.70 55.23
539367.05 6600218.44 55.23
539366.51 6600218.17 55.18
539366.03 6600217.92 55.20
539365.51 6600217.66 55.19
539365.03 6600217.42 55.20
539364.54 6600217.16 55.20
539364.03 6600216.91 55.16
539363.54 6600216.65 55.14
539363.09 6600216.43 55.18
539362.61 6600216.18 55.18
539362.14 6600215.94 55.17
539361.66 6600215.70 55.14
539361.21 6600215.47 55.15
539360.72 6600215.22 55.11
539360.29 6600215.00 55.13
539359.80 6600214.75 55.06
539359.40 6600214.55 55.16
539358.93 6600214.31 55.10
539358.49 6600214.09 55.10
539358.05 6600213.86 55.08
539357.61 6600213.64 55.07
539357.19 6600213.42 55.07
539356.74 6600213.19 55.03
539356.36 6600213.00 55.14
539355.87 6600212.75 54.98
539355.48 6600212.56 55.05
539355.05 6600212.34 55.03
539354.64 6600212.13 55.00
539354.24 6600211.93 55.07
539353.83 6600211.71 55.04
539353.41 6600211.50 55.03
539353.01 6600211.30 55.00
539352.60 6600211.09 55.02
539352.22 6600210.90 55.05
539351.81 6600210.69 55.03
539351.41 6600210.49 55.02
539351.00 6600210.28 54.97
539350.64 6600210.09 55.07
539350.21 6600209.88 54.94
539349.85 6600209.69 55.01
539349.45 6600209.49 55.00
539349.07 6600209.29 55.00
539348.68 6600209.09 54.93
539348.30 6600208.90 54.98
539347.92 6600208.71 54.95
539347.55 6600208.52 55.01
539347.20 6600208.34 55.12
539346.80 6600208.14 55.05
539346.43 6600207.95 55.06
539346.05 6600207.76 55.03
539345.69 6600207.57 55.09
539345.30 6600207.38 55.03
539344.93 6600207.19 54.98
539344.56 6600207.00 55.00
539344.20 6600206.82 55.05
539343.82 6600206.62 55.00
539343.45 6600206.43 54.91
539343.08 6600206.25 54.95
539342.72 6600206.07 54.98
539342.35 6600205.87 54.92
539342.00 6600205.69 54.96
539341.63 6600205.51 54.96
539341.27 6600205.32 54.91
539340.90 6600205.14 54.93
539340.55 6600204.96 54.90
539340.20 6600204.78 54.91
539339.83 6600204.59 54.88
539339.47 6600204.41 54.89
539339.11 6600204.23 54.90
539338.75 6600204.04 54.87
539338.39 6600203.86 54.88
539338.05 6600203.68 54.91
539337.68 6600203.50 54.85
539337.33 6600203.32 54.86
539336.96 6600203.13 54.88
539336.61 6600202.96 54.88
539336.25 6600202.77 54.86
539335.90 6600202.60 54.85
539335.54 6600202.41 54.84
539335.19 6600202.23 54.85
539334.83 6600202.04 54.84
539334.47 6600201.87 54.86
539334.11 6600201.68 54.85
539333.76 6600201.51 54.84
539333.40 6600201.32 54.83
539333.04 6600201.14 54.86
539332.68 6600200.95 54.85
539332.32 6600200.77 54.85
539331.61 6600200.41 54.87
539331.26 6600200.23 54.83
539330.89 6600200.04 54.85
539330.53 6600199.86 54.85
539330.17 6600199.68 54.82
539329.81 6600199.49 54.86
539329.45 6600199.31 54.81
539329.08 6600199.12 54.83
539328.71 6600198.93 54.86
539328.36 6600198.75 54.81
539327.98 6600198.56 54.83
539327.62 6600198.38 54.84
539326.87 6600198.00 54.91
539326.50 6600197.81 54.86
539326.14 6600197.63 54.82
539325.77 6600197.44 54.81
539325.39 6600197.24 54.86
539324.63 6600196.86 54.88
539324.26 6600196.67 54.81
539323.88 6600196.48 54.84
539323.51 6600196.29 54.82
539323.11 6600196.09 54.85
539322.75 6600195.90 54.78
539322.35 6600195.70 54.83
539321.93 6600195.49 54.95
539321.56 6600195.30 54.86
539321.21 6600195.12 54.73
539320.76 6600194.89 54.94
539320.37 6600194.69 54.90
539319.99 6600194.50 54.83
539319.59 6600194.29 54.85
539319.21 6600194.10 54.79
539318.79 6600193.89 54.84
539318.38 6600193.68 54.86
539317.98 6600193.48 54.83
539317.56 6600193.26 54.84
539317.15 6600193.05 54.85
539316.73 6600192.84 54.84
539316.31 6600192.62 54.88
539315.91 6600192.42 54.82
539315.47 6600192.20 54.86
539315.04 6600191.98 54.87
539314.63 6600191.77 54.83
539314.16 6600191.53 54.93
539313.74 6600191.32 54.88
539312.91 6600190.89 54.77
539312.46 6600190.66 54.80
539311.56 6600190.21 54.78
539311.09 6600189.97 54.81
539310.63 6600189.73 54.84
539310.16 6600189.50 54.82
539309.73 6600189.28 54.76
539309.24 6600189.03 54.79
539308.79 6600188.80 54.77
539308.28 6600188.54 54.81
539307.82 6600188.30 54.79
539307.33 6600188.05 54.78
539306.84 6600187.81 54.79
539306.31 6600187.54 54.83
539305.87 6600187.31 54.74
539305.34 6600187.04 54.77
539304.82 6600186.77 54.81
539304.30 6600186.52 54.79
539303.80 6600186.26 54.78
539303.28 6600185.99 54.77
539302.73 6600185.72 54.78
539302.20 6600185.44 54.79
539301.67 6600185.18 54.75
539301.14 6600184.90 54.74
539300.55 6600184.61 54.78
539300.00 6600184.33 54.78
539299.42 6600184.03 54.79
539298.86 6600183.74 54.78
539298.30 6600183.46 54.74
539297.71 6600183.16 54.75
539297.09 6600182.85 54.77
539296.51 6600182.55 54.75
539295.89 6600182.24 54.75
539295.31 6600181.94 54.72
539294.68 6600181.62 54.71
539294.03 6600181.29 54.74
539293.39 6600180.96 54.72
539292.77 6600180.65 54.69
539292.11 6600180.31 54.67
539291.45 6600179.97 54.67
539290.76 6600179.62 54.67
539290.09 6600179.28 54.66
539289.38 6600178.92 54.68
539288.68 6600178.56 54.66
539287.99 6600178.22 54.62
539287.24 6600177.83 54.63
539286.52 6600177.47 54.62
539285.78 6600177.09 54.59
539284.99 6600176.69 54.62
539284.22 6600176.30 54.60
539283.47 6600175.92 54.56
539282.69 6600175.52 54.52
539281.92 6600175.12 54.49
539281.08 6600174.70 54.48
539280.25 6600174.28 54.47
539279.38 6600173.84 54.47
539278.53 6600173.40 54.44
539277.66 6600172.96 54.41
539276.82 6600172.53 54.35
539275.95 6600172.09 54.29
539275.05 6600171.63 54.26
539274.08 6600171.14 54.25
539273.13 6600170.66 54.23
539272.14 6600170.15 54.21
539271.16 6600169.65 54.19
539270.18 6600169.15 54.14
539269.16 6600168.64 54.09
539268.15 6600168.12 54.04
539267.07 6600167.57 54.00
539266.06 6600167.06 53.92
539264.95 6600166.50 53.86
539263.84 6600165.93 53.81
539262.62 6600165.31 53.81
539261.44 6600164.71 53.77
539260.20 6600164.08 53.73
539259.01 6600163.47 53.67
539257.78 6600162.85 53.59
539256.53 6600162.21 53.51
539255.14 6600161.51 53.49
539253.77 6600160.81 53.46
539252.36 6600160.10 53.40
539250.98 6600159.39 53.33
539249.52 6600158.65 53.25
539248.02 6600157.88 53.20
539246.41 6600157.07 53.17
539244.87 6600156.28 53.09
539243.24 6600155.46 53.01
539241.58 6600154.61 52.94
539443.00 6600255.80 57.52
539440.93 6600254.74 57.50
539438.80 6600253.66 57.43
539436.72 6600252.60 57.33
539434.71 6600251.57 57.25
539432.83 6600250.62 57.20
539430.94 6600249.65 57.13
539429.11 6600248.72 57.04
539427.29 6600247.79 56.94
539425.58 6600246.92 56.87
539423.91 6600246.07 56.81
539422.32 6600245.26 56.75
539420.73 6600244.45 56.69
539419.26 6600243.69 56.65
539417.77 6600242.93 56.60
539416.38 6600242.23 56.58
539414.95 6600241.50 56.52
539413.58 6600240.80 56.46
539412.23 6600240.11 56.41
539410.96 6600239.46 56.37
539409.68 6600238.82 56.33
539408.43 6600238.18 56.27
539407.15 6600237.52 56.17
539405.94 6600236.91 56.10
539404.80 6600236.33 56.06
539403.57 6600235.70 55.95
539402.46 6600235.13 55.89
539401.40 6600234.59 55.87
539400.39 6600234.08 55.86
539399.37 6600233.56 55.85
539398.40 6600233.07 55.84
539397.42 6600232.56 55.82
539396.47 6600232.08 55.80
539395.54 6600231.61 55.80
539394.63 6600231.14 55.78
539393.69 6600230.66 55.73
539392.79 6600230.20 55.69
539391.91 6600229.75 55.67
539391.08 6600229.33 55.66
539390.24 6600228.90 55.66
539389.42 6600228.49 55.64
539388.60 6600228.07 55.62
539387.78 6600227.65 55.57
539386.98 6600227.24 55.55
539386.21 6600226.85 55.51
539385.45 6600226.46 55.51
539384.73 6600226.09 55.51
539384.00 6600225.72 55.50
539383.26 6600225.35 55.47
539382.58 6600225.00 55.48
539381.87 6600224.64 55.47
539381.16 6600224.27 55.42
539380.49 6600223.93 55.44
539379.84 6600223.60 55.43
539379.18 6600223.26 55.43
539378.53 6600222.93 55.41
539377.87 6600222.59 55.38
539377.24 6600222.28 55.37
539376.61 6600221.95 55.36
539376.00 6600221.64 55.36
539375.39 6600221.33 55.35
539374.77 6600221.02 55.31
539374.17 6600220.71 55.30
539373.60 6600220.42 55.30
539373.04 6600220.13 55.32
539372.45 6600219.83 55.29
539371.89 6600219.55 55.30
539371.34 6600219.26 55.28
539370.77 6600218.98 55.27
539370.23 6600218.70 55.26
539369.70 6600218.43 55.26
539369.14 6600218.15 55.22
539368.61 6600217.88 55.20
539368.05 6600217.59 55.13
539367.57 6600217.35 55.19
539367.07 6600217.09 55.21
539366.56 6600216.83 55.18
539366.05 6600216.57 55.19
539365.56 6600216.32 55.18
539365.05 6600216.06 55.15
539364.57 6600215.82 55.15
539364.08 6600215.57 55.14
539363.62 6600215.33 55.16
539363.13 6600215.08 55.14
539362.68 6600214.85 55.15
539362.19 6600214.60 55.13
539361.74 6600214.37 55.12
539361.26 6600214.13 55.09
539360.81 6600213.90 55.09
539360.36 6600213.67 55.10
539359.92 6600213.44 55.09
539359.46 6600213.21 55.07
539359.02 6600212.98 55.05
539358.60 6600212.77 55.07
539358.17 6600212.55 55.09
539357.74 6600212.33 55.08
539357.31 6600212.11 55.10
